0.209594,0.0133871,0.0133871,2,15,6
0.209611,0.0130421,0.0130421,2,15,6
0.209629,0.0127064,0.0127064,2,15,6
0.209647,0.01238,0.01238,2,15,6
0.209666,0.0120627,0.0120627,2,15,6
0.209685,0.0117544,0.0117544,2,15,6
0.209704,0.0114551,0.0114551,2,15,6
0.209724,0.0111646,0.0111646,2,15,6
0.209743,0.0108829,0.0108829,2,15,6
0.209763,0.0106097,0.0106097,2,15,6
0.209784,0.010345,0.010345,2,15,6
0.209804,0.0100887,0.0100887,2,15,6
0.209824,0.00984061,0.00984061,2,15,6
0.209844,0.00960067,0.00960067,2,15,6
0.209864,0.00936874,0.00936874,2,15,6
0.209884,0.0091447,0.0091447,2,15,6
0.209903,0.00892844,0.00892844,2,15,6
0.209923,0.00871981,0.00871981,2,15,6
0.209942,0.00851871,0.00851871,2,15,6
0.20996,0.00832501,0.00832501,2,15,6
0.209979,0.00813858,0.00813858,2,15,6
0.209997,0.00795931,0.00795931,2,15,6
0.210014,0.00778706,0.00778706,2,15,6
0.210031,0.00762172,0.00762172,2,15,6
0.210048,0.00746316,0.00746316,2,15,6
0.210064,0.00731127,0.00731127,2,15,6
0.210079,0.00716591,0.00716591,2,15,6
0.210094,0.00702698,0.00702698,2,15,6
0.210109,0.00689434,0.00689434,2,15,6
0.210123,0.00676789,0.00676789,2,15,6
0.210136,0.0066475,0.0066475,2,15,6
0.210148,0.00653307,0.00653307,2,15,6
0.21016,0.00642447,0.00642447,2,15,6
0.210171,0.0063216,0.0063216,2,15,6
0.210182,0.00622435,0.00622435,2,15,6
0.210191,0.0061326,0.0061326,2,15,6
0.2102,0.00604624,0.00604624,2,15,6
0.210209,0.00596518,0.00596518,2,15,6
0.210216,0.0058893,0.0058893,2,15,6
0.210223,0.0058185,0.0058185,2,15,6
0.210229,0.00575268,0.00575268,2,15,6
0.210235,0.00569174,0.00569174,2,15,6
0.21024,0.00563559,0.00563559,2,15,6
0.210244,0.00558411,0.00558411,2,15,6
0.210247,0.00553724,0.00553724,2,15,6
0.210249,0.00549486,0.00549486,2,15,6
0.210251,0.0054569,0.0054569,2,15,6
0.210252,0.00542327,0.00542327,2,15,6
0.210252,0.00539389,0.00539389,2,15,6
0.210252,0.00536868,0.00536868,2,15,6
0.21025,0.00534757,0.00534757,2,15,6
0.210248,0.00533048,0.00533048,2,15,6
0.210245,0.00531735,0.00531735,2,15,6
0.210242,0.00530813,0.00530813,2,15,6
0.210238,0.00530275,0.00530275,2,15,6
0.210233,0.00530116,0.00530116,2,15,6
0.210227,0.00530331,0.00530331,2,15,6
0.21022,0.00530918,0.00530918,2,15,6
0.210213,0.00531871,0.00531871,2,15,6
0.210204,0.00533188,0.00533188,2,15,6
0.210196,0.00534868,0.00534868,2,15,6
0.210186,0.00536907,0.00536907,2,15,6
0.210175,0.00539306,0.00539306,2,15,6
0.210164,0.00542062,0.00542062,2,15,6
0.210152,0.00545177,0.00545177,2,15,6
0.210139,0.0054865,0.0054865,2,15,6
0.210125,0.00552484,0.00552484,2,15,6
0.21011,0.00556679,0.00556679,2,15,6
0.210094,0.00561238,0.00561238,2,15,6
0.210078,0.00566165,0.00566165,2,15,6
0.21006,0.00571463,0.00571463,2,15,6
0.210042,0.00577137,0.00577137,2,15,6
0.210023,0.00583189,0.00583189,2,15,6
0.210003,0.00589628,0.00589628,2,15,6
0.209981,0.00596458,0.00596458,2,15,6
0.209959,0.00603685,0.00603685,2,15,6
0.209936,0.00611318,0.00611318,2,15,6
0.209911,0.00619364,0.00619364,2,15,6
0.209886,0.00627831,0.00627831,2,15,6
0.209859,0.00636728,0.00636728,2,15,6
0.209831,0.00646065,0.00646065,2,15,6
0.209802,0.00655852,0.00655852,2,15,6
0.209772,0.006661,0.006661,2,15,6
0.209741,0.0067682,0.0067682,2,15,6
0.209708,0.00688024,0.00688024,2,15,6
0.209674,0.00699724,0.00699724,2,15,6
0.209639,0.00711934,0.00711934,2,15,6
0.209602,0.00724667,0.00724667,2,15,6
0.209564,0.00737937,0.00737937,2,15,6
0.209524,0.00751761,0.00751761,2,15,6
0.209483,0.00766153,0.00766153,2,15,6
0.20944,0.00781129,0.00781129,2,15,6
0.209396,0.00796707,0.00796707,2,15,6
0.20935,0.00812904,0.00812904,2,15,6
0.209302,0.00829738,0.00829738,2,15,6
0.209253,0.00847228,0.00847228,2,15,6
0.209202,0.00865394,0.00865394,2,15,6
0.209149,0.00884255,0.00884255,2,15,6
0.209094,0.00903833,0.00903833,2,15,6
0.209037,0.0092415,0.0092415,2,15,6
0.208979,0.00945227,0.00945227,2,15,6
0.208918,0.00967088,0.00967088,2,15,6
0.208856,0.00989756,0.00989756,2,15,6
0.208791,0.0101326,0.0101326,2,15,6
0.208724,0.0103761,0.0103761,2,15,6
0.208656,0.0106285,0.0106285,2,15,6
0.208585,0.01089,0.01089,2,15,6
0.396696,1.2024,1.2024,2,17,6
0.396454,1.19877,1.19877,2,17,6
0.39621,1.19511,1.19511,2,17,6
0.395964,1.19142,1.19142,2,17,6
0.395715,1.18772,1.18772,2,17,6
0.395463,1.18399,1.18399,2,17,6
0.395209,1.18023,1.18023,2,17,6
0.394953,1.17645,1.17645,2,17,6
0.394693,1.17265,1.17265,2,17,6
0.394431,1.16882,1.16882,2,17,6
0.394167,1.16498,1.16498,2,17,6
0.3939,1.1611,1.1611,2,17,6
0.39363,1.15721,1.15721,2,17,6
0.393357,1.15329,1.15329,2,17,6
0.393082,1.14934,1.14934,2,17,6
0.392804,1.14538,1.14538,2,17,6
0.392523,1.14139,1.14139,2,17,6
0.392239,1.13738,1.13738,2,17,6
0.391952,1.13335,1.13335,2,17,6
0.391662,1.12929,1.12929,2,17,6
0.39137,1.12521,1.12521,2,17,6
0.391075,1.12111,1.12111,2,17,6
0.390776,1.11699,1.11699,2,17,6
0.390475,1.11285,1.11285,2,17,6
0.39017,1.10868,1.10868,2,17,6
0.389863,1.1045,1.1045,2,17,6
0.389552,1.10029,1.10029,2,17,6
0.389238,1.09606,1.09606,2,17,6
0.388922,1.09181,1.09181,2,17,6
0.388601,1.08754,1.08754,2,17,6
0.388278,1.08325,1.08325,2,17,6
0.387952,1.07894,1.07894,2,17,6
0.387622,1.07461,1.07461,2,17,6
0.387289,1.07026,1.07026,2,17,6
0.386953,1.06589,1.06589,2,17,6
0.386613,1.0615,1.0615,2,17,6
0.38627,1.05709,1.05709,2,17,6
0.385923,1.05267,1.05267,2,17,6
0.385573,1.04822,1.04822,2,17,6
0.38522,1.04376,1.04376,2,17,6
0.384863,1.03928,1.03928,2,17,6
0.384502,1.03478,1.03478,2,17,6
0.384138,1.03026,1.03026,2,17,6
0.383771,1.02573,1.02573,2,17,6
0.383399,1.02118,1.02118,2,17,6
0.383024,1.01661,1.01661,2,17,6
0.382646,1.01203,1.01203,2,17,6
0.382263,1.00743,1.00743,2,17,6
0.381877,1.00281,1.00281,2,17,6
0.381487,0.998178,0.998178,2,17,6
0.381093,0.993532,0.993532,2,17,6
0.380696,0.98887,0.98887,2,17,6
0.380294,0.984194,0.984194,2,17,6
0.379889,0.979503,0.979503,2,17,6
0.37948,0.974799,0.974799,2,17,6
0.379066,0.970081,0.970081,2,17,6
0.378649,0.965349,0.965349,2,17,6
0.378227,0.960604,0.960604,2,17,6
0.377802,0.955846,0.955846,2,17,6
0.377372,0.951076,0.951076,2,17,6
0.376938,0.946294,0.946294,2,17,6
0.3765,0.9415,0.9415,2,17,6
0.376058,0.936695,0.936695,2,17,6
0.375612,0.931878,0.931878,2,17,6
0.375161,0.927051,0.927051,2,17,6
0.374706,0.922213,0.922213,2,17,6
0.374247,0.917365,0.917365,2,17,6
0.373783,0.912507,0.912507,2,17,6
0.373315,0.907639,0.907639,2,17,6
0.372842,0.902763,0.902763,2,17,6
0.372365,0.897877,0.897877,2,17,6
0.371884,0.892984,0.892984,2,17,6
0.371398,0.888082,0.888082,2,17,6
0.370907,0.883172,0.883172,2,17,6
0.370412,0.878255,0.878255,2,17,6
0.369912,0.873331,0.873331,2,17,6
0.369408,0.8684,0.8684,2,17,6
0.368899,0.863463,0.863463,2,17,6
0.368385,0.85852,0.85852,2,17,6
0.367867,0.853571,0.853571,2,17,6
0.367343,0.848617,0.848617,2,17,6
0.366815,0.843657,0.843657,2,17,6
0.366283,0.838694,0.838694,2,17,6
0.365745,0.833726,0.833726,2,17,6
0.365202,0.828754,0.828754,2,17,6
0.364655,0.823779,0.823779,2,17,6
0.364103,0.8188,0.8188,2,17,6
0.363546,0.813819,0.813819,2,17,6
0.362984,0.808836,0.808836,2,17,6
0.362416,0.80385,0.80385,2,17,6
0.361844,0.798863,0.798863,2,17,6
0.361267,0.793874,0.793874,2,17,6
0.360685,0.788884,0.788884,2,17,6
0.360098,0.783894,0.783894,2,17,6
0.359506,0.778904,0.778904,2,17,6
0.358909,0.773914,0.773914,2,17,6
0.358307,0.768924,0.768924,2,17,6
0.3577,0.763935,0.763935,2,17,6
0.357087,0.758948,0.758948,2,17,6
0.35647,0.753963,0.753963,2,17,6
0.355847,0.748979,0.748979,2,17,6
0.35522,0.743999,0.743999,2,17,6
0.354587,0.739021,0.739021,2,17,6
0.353949,0.734047,0.734047,2,17,6
0.353307,0.729077,0.729077,2,17,6
0.352659,0.72411,0.72411,2,17,6
0.352006,0.719149,0.719149,2,17,6
0.351348,0.714193,0.714193,2,17,6
0.350685,0.709243,0.709243,2,17,6
0.350018,0.704299,0.704299,2,17,6
0.349345,0.699362,0.699362,2,17,6
0.348668,0.694432,0.694432,2,17,6
0.347985,0.689511,0.689511,2,17,6
0.347298,0.684597,0.684597,2,17,6
0.346607,0.679693,0.679693,2,17,6
0.34591,0.674799,0.674799,2,17,6
0.34521,0.669916,0.669916,2,17,6
0.344504,0.665044,0.665044,2,17,6
0.343795,0.660184,0.660184,2,17,6
0.343081,0.655338,0.655338,2,17,6
0.342364,0.650505,0.650505,2,17,6
0.341642,0.645688,0.645688,2,17,6
0.340917,0.640887,0.640887,2,17,6
0.340188,0.636103,0.636103,2,17,6
0.339456,0.631339,0.631339,2,17,6
0.338721,0.626594,0.626594,2,17,6
0.337984,0.621871,0.621871,2,17,6
0.337244,0.617172,0.617172,2,17,6
0.336502,0.612497,0.612497,2,17,6
0.335758,0.607851,0.607851,2,17,6
0.335013,0.603233,0.603233,2,17,6
0.334267,0.598648,0.598648,2,17,6
0.333521,0.594096,0.594096,2,17,6
0.332775,0.589582,0.589582,2,17,6
0.33203,0.585108,0.585108,2,17,6
0.331287,0.580678,0.580678,2,17,6
0.330545,0.576294,0.576294,2,17,6
0.329807,0.571961,0.571961,2,17,6
0.329073,0.567683,0.567683,2,17,6
0.328344,0.563462,0.563462,2,17,6
0.327621,0.559305,0.559305,2,17,6
0.326904,0.555214,0.555214,2,17,6
0.326195,0.551195,0.551195,2,17,6
0.325495,0.547252,0.547252,2,17,6
0.324804,0.543388,0.543388,2,17,6
0.324125,0.539609,0.539609,2,17,6
0.323457,0.535918,0.535918,2,17,6
0.322802,0.532318,0.532318,2,17,6
0.322161,0.528813,0.528813,2,17,6
0.321534,0.525407,0.525407,2,17,6
0.320922,0.5221,0.5221,2,17,6
0.320326,0.518894,0.518894,2,17,6
0.319746,0.515791,0.515791,2,17,6
0.319183,0.512792,0.512792,2,17,6
0.318636,0.509896,0.509896,2,17,6
0.318107,0.507102,0.507102,2,17,6
0.317595,0.50441,0.50441,2,17,6
0.3171,0.501818,0.501818,2,17,6
0.316621,0.499323,0.499323,2,17,6
0.31616,0.496924,0.496924,2,17,6
0.315714,0.494618,0.494618,2,17,6
0.315285,0.492403,0.492403,2,17,6
0.314871,0.490274,0.490274,2,17,6
0.314473,0.488231,0.488231,2,17,6
0.314089,0.486267,0.486267,2,17,6
0.313719,0.484381,0.484381,2,17,6
0.313364,0.48257,0.48257,2,17,6
0.313021,0.48083,0.48083,2,17,6
0.31269,0.479159,0.479159,2,17,6
0.312372,0.477552,0.477552,2,17,6
0.312066,0.476009,0.476009,2,17,6
0.311771,0.474523,0.474523,2,17,6
0.311487,0.473096,0.473096,2,17,6
0.311212,0.471722,0.471722,2,17,6
0.310948,0.470399,0.470399,2,17,6
0.310693,0.469126,0.469126,2,17,6
0.310447,0.467899,0.467899,2,17,6
0.310209,0.466718,0.466718,2,17,6
0.30998,0.465579,0.465579,2,17,6
0.309759,0.46448,0.46448,2,17,6
0.309544,0.463419,0.463419,2,17,6
0.309338,0.462397,0.462397,2,17,6
0.309138,0.461409,0.461409,2,17,6
0.308945,0.460455,0.460455,2,17,6
0.308757,0.459532,0.459532,2,17,6
0.308577,0.458641,0.458641,2,17,6
0.308401,0.457779,0.457779,2,17,6
0.308231,0.456944,0.456944,2,17,6
0.308067,0.456137,0.456137,2,17,6
0.307907,0.455355,0.455355,2,17,6
0.307753,0.454598,0.454598,2,17,6
0.307603,0.453864,0.453864,2,17,6
0.307458,0.453153,0.453153,2,17,6
0.307316,0.452463,0.452463,2,17,6
0.307179,0.451794,0.451794,2,17,6
0.307094,0.451376,0.451376,2,17,6
0.307052,0.451171,0.451171,2,17,6
0.307031,0.451068,0.451068,2,17,6
0.30702,0.451017,0.451017,2,17,6
0.307015,0.450992,0.450992,2,17,6
0.307015,0.450992,0.450992,2,17,6
0.306887,0.450366,0.450366,2,17,6
0.306762,0.449758,0.449758,2,17,6
0.306641,0.449169,0.449169,2,17,6
0.306523,0.448594,0.448594,2,17,6
0.306408,0.448037,0.448037,2,17,6
0.306296,0.447495,0.447495,2,17,6
0.306188,0.446967,0.446967,2,17,6
0.306082,0.446454,0.446454,2,17,6
0.305979,0.445955,0.445955,2,17,6
0.305879,0.445469,0.445469,2,17,6
0.305781,0.444995,0.444995,2,17,6
0.305686,0.444534,0.444534,2,17,6
0.305593,0.444085,0.444085,2,17,6
0.305502,0.443647,0.443647,2,17,6
0.305414,0.44322,0.44322,2,17,6
0.305328,0.442805,0.442805,2,17,6
0.305244,0.442399,0.442399,2,17,6
0.305162,0.442003,0.442003,2,17,6
0.305082,0.441616,0.441616,2,17,6
0.305004,0.441239,0.441239,2,17,6
0.304927,0.440871,0.440871,2,17,6
0.304853,0.440511,0.440511,2,17,6
0.30478,0.440159,0.440159,2,17,6
0.304708,0.439817,0.439817,2,17,6
0.304639,0.439481,0.439481,2,17,6
0.304571,0.439153,0.439153,2,17,6
0.304504,0.438833,0.438833,2,17,6
0.304439,0.438519,0.438519,2,17,6
0.304375,0.438213,0.438213,2,17,6
0.304313,0.437913,0.437913,2,17,6
0.304252,0.43762,0.43762,2,17,6
0.304193,0.437336,0.437336,2,17,6
0.304134,0.437055,0.437055,2,17,6
0.304077,0.43678,0.43678,2,17,6
0.30402,0.43651,0.43651,2,17,6
0.303965,0.436246,0.436246,2,17,6
0.303912,0.435987,0.435987,2,17,6
0.303858,0.435732,0.435732,2,17,6
0.303807,0.435484,0.435484,2,17,6
0.303756,0.43524,0.43524,2,17,6
0.303706,0.435001,0.435001,2,17,6
0.303657,0.434767,0.434767,2,17,6
0.303609,0.434538,0.434538,2,17,6
0.303562,0.434313,0.434313,2,17,6
0.303516,0.434092,0.434092,2,17,6
0.303471,0.433875,0.433875,2,17,6
0.303426,0.433662,0.433662,2,17,6
0.303383,0.433453,0.433453,2,17,6
0.30334,0.433248,0.433248,2,17,6
0.303298,0.433046,0.433046,2,17,6
0.303256,0.432849,0.432849,2,17,6
0.303216,0.432654,0.432654,2,17,6
0.303176,0.432463,0.432463,2,17,6
0.303136,0.432275,0.432275,2,17,6
0.303098,0.432091,0.432091,2,17,6
0.30306,0.431909,0.431909,2,17,6
0.303022,0.431731,0.431731,2,17,6
0.302986,0.431555,0.431555,2,17,6
0.302949,0.431383,0.431383,2,17,6
0.302914,0.431213,0.431213,2,17,6
0.302879,0.431045,0.431045,2,17,6
0.302844,0.43088,0.43088,2,17,6
0.30281,0.430718,0.430718,2,17,6
0.302777,0.430559,0.430559,2,17,6
0.302744,0.430401,0.430401,2,17,6
0.302711,0.430246,0.430246,2,17,6
0.302679,0.430094,0.430094,2,17,6
0.302648,0.429943,0.429943,2,17,6
0.302617,0.429795,0.429795,2,17,6
0.302586,0.429649,0.429649,2,17,6
0.302556,0.429504,0.429504,2,17,6
0.302526,0.429362,0.429362,2,17,6
0.302496,0.429221,0.429221,2,17,6
0.302467,0.429083,0.429083,2,17,6
0.302439,0.428946,0.428946,2,17,6
0.30241,0.428811,0.428811,2,17,6
0.302383,0.428679,0.428679,2,17,6
0.302355,0.428547,0.428547,2,17,6
0.302328,0.428417,0.428417,2,17,6
0.3023,0.428286,0.428286,2,17,6
0.302273,0.428159,0.428159,2,17,6
0.302247,0.428033,0.428033,2,17,6
0.302221,0.427911,0.427911,2,17,6
0.302196,0.427788,0.427788,2,17,6
0.30217,0.427666,0.427666,2,17,6
0.302144,0.427543,0.427543,2,17,6
0.302119,0.427423,0.427423,2,17,6
0.302094,0.427306,0.427306,2,17,6
0.30207,0.42719,0.42719,2,17,6
0.302046,0.427076,0.427076,2,17,6
0.302022,0.426963,0.426963,2,17,6
0.301999,0.426853,0.426853,2,17,6
0.301976,0.426745,0.426745,2,17,6
0.301954,0.42664,0.42664,2,17,6
0.301933,0.426538,0.426538,2,17,6
0.301912,0.42644,0.42644,2,17,6
0.301892,0.426346,0.426346,2,17,6
0.301873,0.426256,0.426256,2,17,6
0.301855,0.42617,0.42617,2,17,6
0.301838,0.426089,0.426089,2,17,6
0.301822,0.426012,0.426012,2,17,6
0.301807,0.42594,0.42594,2,17,6
0.301792,0.425871,0.425871,2,17,6
0.301779,0.425805,0.425805,2,17,6
0.301765,0.425742,0.425742,2,17,6
0.301753,0.425682,0.425682,2,17,6
0.30174,0.425624,0.425624,2,17,6
0.301728,0.425566,0.425566,2,17,6
0.301717,0.42551,0.42551,2,17,6
0.301705,0.425454,0.425454,2,17,6
0.301693,0.425398,0.425398,2,17,6
0.301681,0.425341,0.425341,2,17,6
0.301669,0.425283,0.425283,2,17,6
0.301656,0.425223,0.425223,2,17,6
0.301643,0.425161,0.425161,2,17,6
0.301629,0.425096,0.425096,2,17,6
0.301615,0.425028,0.425028,2,17,6
0.3016,0.424956,0.424956,2,17,6
0.301584,0.42488,0.42488,2,17,6
0.301567,0.4248,0.4248,2,17,6
0.301549,0.424713,0.424713,2,17,6
0.301529,0.42462,0.42462,2,17,6
0.301509,0.424524,0.424524,2,17,6
0.301487,0.424418,0.424418,2,17,6
0.301463,0.424307,0.424307,2,17,6
0.301438,0.424188,0.424188,2,17,6
0.301411,0.42406,0.42406,2,17,6
0.301383,0.423925,0.423925,2,17,6
0.301352,0.423782,0.423782,2,17,6
0.30132,0.423629,0.423629,2,17,6
0.301286,0.42347,0.42347,2,17,6
0.30125,0.423299,0.423299,2,17,6
0.301212,0.423118,0.423118,2,17,6
0.301172,0.42293,0.42293,2,17,6
0.30113,0.422732,0.422732,2,17,6
0.301087,0.422526,0.422526,2,17,6
0.301041,0.422308,0.422308,2,17,6
0.300993,0.422081,0.422081,2,17,6
0.300943,0.421847,0.421847,2,17,6
0.300891,0.421604,0.421604,2,17,6
0.300838,0.421352,0.421352,2,17,6
0.300783,0.421092,0.421092,2,17,6
0.300726,0.420825,0.420825,2,17,6
0.300667,0.420548,0.420548,2,17,6
0.300607,0.420265,0.420265,2,17,6
0.300545,0.419975,0.419975,2,17,6
0.300482,0.419677,0.419677,2,17,6
0.300417,0.419374,0.419374,2,17,6
0.300351,0.419063,0.419063,2,17,6
0.300284,0.418747,0.418747,2,17,6
0.300215,0.418425,0.418425,2,17,6
0.300144,0.418095,0.418095,2,17,6
0.300073,0.417761,0.417761,2,17,6
0.300001,0.417422,0.417422,2,17,6
0.299926,0.417074,0.417074,2,17,6
0.299851,0.416725,0.416725,2,17,6
0.299775,0.41637,0.41637,2,17,6
0.299699,0.416014,0.416014,2,17,6
0.299621,0.41565,0.41565,2,17,6
0.299541,0.415282,0.415282,2,17,6
0.299461,0.414907,0.414907,2,17,6
0.29938,0.41453,0.41453,2,17,6
0.299298,0.414149,0.414149,2,17,6
0.299216,0.413768,0.413768,2,17,6
0.299132,0.413379,0.413379,2,17,6
0.299047,0.412986,0.412986,2,17,6
0.298961,0.412588,0.412588,2,17,6
0.298874,0.412188,0.412188,2,17,6
0.298787,0.411783,0.411783,2,17,6
0.298699,0.411379,0.411379,2,17,6
0.29861,0.410967,0.410967,2,17,6
0.29852,0.410552,0.410552,2,17,6
0.298429,0.410134,0.410134,2,17,6
0.298337,0.409713,0.409713,2,17,6
0.298245,0.409287,0.409287,2,17,6
0.298151,0.408858,0.408858,2,17,6
0.298057,0.408427,0.408427,2,17,6
0.297962,0.407992,0.407992,2,17,6
0.297867,0.407553,0.407553,2,17,6
0.29777,0.407112,0.407112,2,17,6
0.297673,0.406667,0.406667,2,17,6
0.297575,0.40622,0.40622,2,17,6
0.297476,0.405769,0.405769,2,17,6
0.297377,0.405315,0.405315,2,17,6
0.297276,0.404857,0.404857,2,17,6
0.297175,0.404397,0.404397,2,17,6
0.297073,0.403934,0.403934,2,17,6
0.29697,0.403467,0.403467,2,17,6
0.296867,0.402998,0.402998,2,17,6
0.296763,0.402525,0.402525,2,17,6
0.296658,0.402049,0.402049,2,17,6
0.296552,0.401571,0.401571,2,17,6
0.296445,0.401089,0.401089,2,17,6
0.296338,0.400604,0.400604,2,17,6
0.296269,0.400293,0.400293,2,17,6
0.296234,0.400136,0.400136,2,17,6
0.296217,0.400059,0.400059,2,17,6
0.296208,0.40002,0.40002,2,17,6
0.296204,0.4,0.4,2,16,6
0.2962,0.39998,0.39998,2,16,6
0.296191,0.399941,0.399941,2,16,6
0.296173,0.399862,0.399862,2,16,6
0.296138,0.399705,0.399705,2,16,6
0.296068,0.399389,0.399389,2,16,6
0.295958,0.398894,0.398894,2,16,6
0.295848,0.398396,0.398396,2,16,6
0.295736,0.397895,0.397895,2,16,6
0.295623,0.39739,0.39739,2,16,6
0.29551,0.396883,0.396883,2,16,6
0.295396,0.396373,0.396373,2,16,6
0.295282,0.39586,0.39586,2,16,6
0.295166,0.395344,0.395344,2,16,6
0.29505,0.394824,0.394824,2,16,6
0.294932,0.394301,0.394301,2,16,6
0.294814,0.393776,0.393776,2,16,6
0.294696,0.393248,0.393248,2,16,6
0.294576,0.392716,0.392716,2,16,6
0.294456,0.392182,0.392182,2,16,6
0.294334,0.391644,0.391644,2,16,6
0.294212,0.391103,0.391103,2,16,6
0.29409,0.390559,0.390559,2,16,6
0.293966,0.390012,0.390012,2,16,6
0.293841,0.389462,0.389462,2,16,6
0.293716,0.388909,0.388909,2,16,6
0.29359,0.388353,0.388353,2,16,6
0.293462,0.387793,0.387793,2,16,6
0.293334,0.387231,0.387231,2,16,6
0.293206,0.386665,0.386665,2,16,6
0.293076,0.386096,0.386096,2,16,6
0.292945,0.385524,0.385524,2,16,6
0.292814,0.384949,0.384949,2,16,6
0.292681,0.38437,0.38437,2,16,6
0.292548,0.383788,0.383788,2,16,6
0.292414,0.383203,0.383203,2,16,6
0.292279,0.382614,0.382614,2,16,6
0.292143,0.382023,0.382023,2,16,6
0.292006,0.381428,0.381428,2,16,6
0.291869,0.38083,0.38083,2,16,6
0.29173,0.380229,0.380229,2,16,6
0.29159,0.379624,0.379624,2,16,6
0.29145,0.379016,0.379016,2,16,6
0.291308,0.378405,0.378405,2,16,6
0.291166,0.37779,0.37779,2,16,6
0.291023,0.377172,0.377172,2,16,6
0.290878,0.37655,0.37655,2,16,6
0.290733,0.375925,0.375925,2,16,6
0.290586,0.375296,0.375296,2,16,6
0.290439,0.374664,0.374664,2,16,6
0.290291,0.374029,0.374029,2,16,6
0.290142,0.37339,0.37339,2,16,6
0.289992,0.372748,0.372748,2,16,6
0.28984,0.372102,0.372102,2,16,6
0.289688,0.371453,0.371453,2,16,6
0.289535,0.3708,0.3708,2,16,6
0.289381,0.370144,0.370144,2,16,6
0.289226,0.369484,0.369484,2,16,6
0.289069,0.368821,0.368821,2,16,6
0.288912,0.368153,0.368153,2,16,6
0.288753,0.367483,0.367483,2,16,6
0.288594,0.366808,0.366808,2,16,6
0.288433,0.36613,0.36613,2,16,6
0.288272,0.365447,0.365447,2,16,6
0.288109,0.364762,0.364762,2,16,6
0.287945,0.364072,0.364072,2,16,6
0.28778,0.363378,0.363378,2,16,6
0.287614,0.362681,0.362681,2,16,6
0.287447,0.36198,0.36198,2,16,6
0.287278,0.361275,0.361275,2,16,6
0.287109,0.360567,0.360567,2,16,6
0.286938,0.359854,0.359854,2,16,6
0.286766,0.359139,0.359139,2,16,6
0.286594,0.358418,0.358418,2,16,6
0.286419,0.357694,0.357694,2,16,6
0.286244,0.356965,0.356965,2,16,6
0.286067,0.356232,0.356232,2,16,6
0.28589,0.355496,0.355496,2,16,6
0.285711,0.354755,0.354755,2,16,6
0.285531,0.354011,0.354011,2,16,6
0.285349,0.353262,0.353262,2,16,6
0.285167,0.352511,0.352511,2,16,6
0.284983,0.351755,0.351755,2,16,6
0.284798,0.350994,0.350994,2,16,6
0.284612,0.350229,0.350229,2,16,6
0.284424,0.349459,0.349459,2,16,6
0.284235,0.348685,0.348685,2,16,6
0.284045,0.347908,0.347908,2,16,6
0.283854,0.347125,0.347125,2,16,6
0.283661,0.346339,0.346339,2,16,6
0.283467,0.345547,0.345547,2,16,6
0.283271,0.344752,0.344752,2,16,6
0.283074,0.343952,0.343952,2,16,6
0.282876,0.343148,0.343148,2,16,6
0.282677,0.342339,0.342339,2,16,6
0.282476,0.341526,0.341526,2,16,6
0.282273,0.340708,0.340708,2,16,6
0.282069,0.339885,0.339885,2,16,6
0.281864,0.339058,0.339058,2,16,6
0.281658,0.338226,0.338226,2,16,6
0.28145,0.33739,0.33739,2,16,6
0.28124,0.336549,0.336549,2,16,6
0.281029,0.335703,0.335703,2,16,6
0.280817,0.334852,0.334852,2,16,6
0.280603,0.333997,0.333997,2,16,6
0.280387,0.333137,0.333137,2,16,6
0.28017,0.332271,0.332271,2,16,6
0.279952,0.331401,0.331401,2,16,6
0.279732,0.330526,0.330526,2,16,6
0.27951,0.329646,0.329646,2,16,6
0.279287,0.328761,0.328761,2,16,6
0.279062,0.327871,0.327871,2,16,6
0.278836,0.326975,0.326975,2,16,6
0.278608,0.326075,0.326075,2,16,6
0.278379,0.32517,0.32517,2,16,6
0.278147,0.324259,0.324259,2,16,6
0.277915,0.323343,0.323343,2,16,6
0.27768,0.322421,0.322421,2,16,6
0.277444,0.321495,0.321495,2,16,6
0.277206,0.320563,0.320563,2,16,6
0.276967,0.319625,0.319625,2,16,6
0.276725,0.318682,0.318682,2,16,6
0.276482,0.317734,0.317734,2,16,6
0.276238,0.31678,0.31678,2,16,6
0.275991,0.31582,0.31582,2,16,6
0.275743,0.314855,0.314855,2,16,6
0.275493,0.313884,0.313884,2,16,6
0.275241,0.312908,0.312908,2,16,6
0.274988,0.311925,0.311925,2,16,6
0.274732,0.310937,0.310937,2,16,6
0.274475,0.309943,0.309943,2,16,6
0.274215,0.308943,0.308943,2,16,6
0.273954,0.307937,0.307937,2,16,6
0.273691,0.306925,0.306925,2,16,6
0.273426,0.305907,0.305907,2,16,6
0.27316,0.304883,0.304883,2,16,6
0.272891,0.303852,0.303852,2,16,6
0.27262,0.302816,0.302816,2,16,6
0.272347,0.301773,0.301773,2,16,6
0.272073,0.300724,0.300724,2,16,6
0.271796,0.299668,0.299668,2,16,6
0.271517,0.298606,0.298606,2,16,6
0.271236,0.297538,0.297538,2,16,6
0.270953,0.296463,0.296463,2,16,6
0.270668,0.295381,0.295381,2,16,6
0.270381,0.294293,0.294293,2,16,6
0.270092,0.293198,0.293198,2,16,6
0.269801,0.292096,0.292096,2,16,6
0.269507,0.290988,0.290988,2,16,6
0.269211,0.289872,0.289872,2,16,6
0.268914,0.288749,0.288749,2,16,6
0.268613,0.28762,0.28762,2,16,6
0.268311,0.286483,0.286483,2,16,6
0.268007,0.28534,0.28534,2,16,6
0.2677,0.284189,0.284189,2,16,6
0.267391,0.28303,0.28303,2,16,6
0.267079,0.281865,0.281865,2,16,6
0.266766,0.280692,0.280692,2,16,6
0.26645,0.279512,0.279512,2,16,6
0.266131,0.278324,0.278324,2,16,6
0.26581,0.277128,0.277128,2,16,6
0.265487,0.275925,0.275925,2,16,6
0.265162,0.274714,0.274714,2,16,6
0.264834,0.273495,0.273495,2,16,6
0.264503,0.272269,0.272269,2,16,6
0.264171,0.271034,0.271034,2,16,6
0.263835,0.269792,0.269792,2,16,6
0.263498,0.268542,0.268542,2,16,6
0.263157,0.267283,0.267283,2,16,6
0.262814,0.266016,0.266016,2,16,6
0.262469,0.264741,0.264741,2,16,6
0.262121,0.263458,0.263458,2,16,6
0.261771,0.262166,0.262166,2,16,6
0.261418,0.260866,0.260866,2,16,6
0.261062,0.259557,0.259557,2,16,6
0.260704,0.25824,0.25824,2,16,6
0.260343,0.256914,0.256914,2,16,6
0.25998,0.25558,0.25558,2,16,6
0.259614,0.254236,0.254236,2,16,6
0.259245,0.252884,0.252884,2,16,6
0.258874,0.251523,0.251523,2,16,6
0.2585,0.250153,0.250153,2,16,6
0.258124,0.248774,0.248774,2,16,6
0.257744,0.247386,0.247386,2,16,6
0.257362,0.245989,0.245989,2,16,6
0.256978,0.244583,0.244583,2,16,6
0.256591,0.243168,0.243168,2,16,6
0.256201,0.241744,0.241744,2,16,6
0.255808,0.24031,0.24031,2,16,6
0.255413,0.238867,0.238867,2,16,6
0.255015,0.237415,0.237415,2,16,6
0.254615,0.235953,0.235953,2,16,6
0.254211,0.234483,0.234483,2,16,6
0.253806,0.233002,0.233002,2,16,6
0.253397,0.231513,0.231513,2,16,6
0.252986,0.230014,0.230014,2,16,6
0.252573,0.228506,0.228506,2,16,6
0.252157,0.226988,0.226988,2,16,6
0.251738,0.225461,0.225461,2,16,6
0.251317,0.223925,0.223925,2,16,6
0.251317,0.223925,0.223925,2,16,6
0.2513,0.223863,0.223863,2,16,6
0.251266,0.22374,0.22374,2,16,6
0.251199,0.223493,0.223493,2,16,6
0.251063,0.222999,0.222999,2,16,6
0.250791,0.222007,0.222007,2,16,6
0.250365,0.22045,0.22045,2,16,6
0.249936,0.218884,0.218884,2,16,6
0.249505,0.217309,0.217309,2,16,6
0.249071,0.215725,0.215725,2,16,6
0.248635,0.214132,0.214132,2,16,6
0.248197,0.21253,0.21253,2,16,6
0.247757,0.210919,0.210919,2,16,6
0.247315,0.2093,0.2093,2,16,6
0.246871,0.207672,0.207672,2,16,6
0.246425,0.206035,0.206035,2,16,6
0.245977,0.204391,0.204391,2,16,6
0.245527,0.202738,0.202738,2,16,6
0.245076,0.201078,0.201078,2,16,6
0.244623,0.19941,0.19941,2,16,6
0.244168,0.197734,0.197734,2,16,6
0.243712,0.196051,0.196051,2,16,6
0.243255,0.194361,0.194361,2,16,6
0.242796,0.192665,0.192665,2,16,6
0.242337,0.190962,0.190962,2,16,6
0.241876,0.189253,0.189253,2,16,6
0.241415,0.187538,0.187538,2,16,6
0.240953,0.185817,0.185817,2,16,6
0.24049,0.184091,0.184091,2,16,6
0.240027,0.18236,0.18236,2,16,6
0.239564,0.180625,0.180625,2,16,6
0.2391,0.178886,0.178886,2,16,6
0.238637,0.177142,0.177142,2,16,6
0.238173,0.175396,0.175396,2,16,6
0.23771,0.173647,0.173647,2,16,6
0.237248,0.171895,0.171895,2,16,6
0.236786,0.170141,0.170141,2,16,6
0.236325,0.168385,0.168385,2,16,6
0.235865,0.166629,0.166629,2,16,6
0.235406,0.164872,0.164872,2,16,6
0.234948,0.163115,0.163115,2,16,6
0.234492,0.161358,0.161358,2,16,6
0.234037,0.159602,0.159602,2,16,6
0.233585,0.157847,0.157847,2,16,6
0.233134,0.156095,0.156095,2,16,6
0.232685,0.154344,0.154344,2,16,6
0.232239,0.152597,0.152597,2,16,6
0.231796,0.150853,0.150853,2,16,6
0.231355,0.149113,0.149113,2,16,6
0.230916,0.147378,0.147378,2,16,6
0.230481,0.145648,0.145648,2,16,6
0.230049,0.143923,0.143923,2,16,6
0.229621,0.142204,0.142204,2,16,6
0.229196,0.140491,0.140491,2,16,6
0.228774,0.138786,0.138786,2,16,6
0.228356,0.137088,0.137088,2,16,6
0.227942,0.135397,0.135397,2,16,6
0.227532,0.133715,0.133715,2,16,6
0.227126,0.132042,0.132042,2,16,6
0.226725,0.130378,0.130378,2,16,6
0.226327,0.128724,0.128724,2,16,6
0.225935,0.127079,0.127079,2,16,6
0.225546,0.125445,0.125445,2,16,6
0.225163,0.123822,0.123822,2,16,6
0.224784,0.122209,0.122209,2,16,6
0.22441,0.120608,0.120608,2,16,6
0.224041,0.119019,0.119019,2,16,6
0.223677,0.117442,0.117442,2,16,6
0.223318,0.115876,0.115876,2,16,6
0.222964,0.114324,0.114324,2,16,6
0.222615,0.112784,0.112784,2,16,6
0.222271,0.111257,0.111257,2,16,6
0.221932,0.109743,0.109743,2,16,6
0.221599,0.108242,0.108242,2,16,6
0.221271,0.106755,0.106755,2,16,6
0.220948,0.105282,0.105282,2,16,6
0.22063,0.103822,0.103822,2,16,6
0.220318,0.102376,0.102376,2,16,6
0.220011,0.100944,0.100944,2,16,6
0.219709,0.0995269,0.0995269,2,16,6
0.219412,0.0981236,0.0981236,2,16,6
0.219121,0.0967345,0.0967345,2,16,6
0.218835,0.0953596,0.0953596,2,16,6
0.218555,0.0939992,0.0939992,2,16,6
0.218279,0.0926532,0.0926532,2,16,6
0.218009,0.0913215,0.0913215,2,16,6
0.217744,0.0900043,0.0900043,2,16,6
0.217484,0.0887015,0.0887015,2,16,6
0.217229,0.0874131,0.0874131,2,16,6
0.216979,0.0861391,0.0861391,2,16,6
0.216735,0.0848794,0.0848794,2,16,6
0.216495,0.083634,0.083634,2,16,6
0.21626,0.0824029,0.0824029,2,16,6
0.216031,0.081186,0.081186,2,16,6
0.215806,0.0799833,0.0799833,2,16,6
0.215585,0.0787946,0.0787946,2,16,6
0.21537,0.0776199,0.0776199,2,16,6
0.215159,0.0764591,0.0764591,2,16,6
0.214953,0.0753122,0.0753122,2,16,6
0.214752,0.074179,0.074179,2,16,6
0.214555,0.0730595,0.0730595,2,16,6
0.214363,0.0719535,0.0719535,2,16,6
0.214175,0.0708609,0.0708609,2,16,6
0.213992,0.0697817,0.0697817,2,16,6
0.213813,0.0687157,0.0687157,2,16,6
0.213638,0.0676629,0.0676629,2,16,6
0.213468,0.066623,0.066623,2,16,6
0.213301,0.065596,0.065596,2,16,6
0.213139,0.0645818,0.0645818,2,16,6
0.212981,0.0635802,0.0635802,2,16,6
0.212827,0.0625911,0.0625911,2,16,6
0.212677,0.0616144,0.0616144,2,16,6
0.21253,0.06065,0.06065,2,16,6
0.212388,0.0596977,0.0596977,2,16,6
0.212249,0.0587574,0.0587574,2,16,6
0.212114,0.057829,0.057829,2,16,6
0.211983,0.0569123,0.0569123,2,16,6
0.211855,0.0560072,0.0560072,2,16,6
0.211731,0.0551137,0.0551137,2,16,6
0.211611,0.0542314,0.0542314,2,16,6
0.211494,0.0533604,0.0533604,2,16,6
0.21138,0.0525005,0.0525005,2,16,6
0.21127,0.0516515,0.0516515,2,16,6
0.211163,0.0508133,0.0508133,2,16,6
0.211059,0.0499859,0.0499859,2,16,6
0.210958,0.049169,0.049169,2,16,6
0.210861,0.0483626,0.0483626,2,16,6
0.210766,0.0475664,0.0475664,2,16,6
0.210675,0.0467805,0.0467805,2,16,6
0.210587,0.0460046,0.0460046,2,16,6
0.210501,0.0452387,0.0452387,2,16,6
0.210419,0.0444825,0.0444825,2,16,6
0.210339,0.0437361,0.0437361,2,16,6
0.210262,0.0429992,0.0429992,2,16,6
0.210188,0.0422718,0.0422718,2,16,6
0.210117,0.0415536,0.0415536,2,16,6
0.210048,0.0408447,0.0408447,2,16,6
0.209982,0.0401449,0.0401449,2,16,6
0.209918,0.0394541,0.0394541,2,16,6
0.209857,0.0387722,0.0387722,2,16,6
0.209799,0.038099,0.038099,2,16,6
0.209742,0.0374344,0.0374344,2,16,6
0.209689,0.0367784,0.0367784,2,16,6
0.209637,0.0361308,0.0361308,2,16,6
0.209588,0.0354916,0.0354916,2,16,6
0.209542,0.0348605,0.0348605,2,16,6
0.209497,0.0342376,0.0342376,2,16,6
0.209455,0.0336228,0.0336228,2,16,6
0.209415,0.0330158,0.0330158,2,16,6
0.209377,0.0324167,0.0324167,2,16,6
0.209341,0.0318254,0.0318254,2,16,6
0.209307,0.0312417,0.0312417,2,16,6
0.209275,0.0306656,0.0306656,2,16,6
0.209245,0.030097,0.030097,2,16,6
0.209218,0.0295357,0.0295357,2,16,6
0.209192,0.0289819,0.0289819,2,16,6
0.209168,0.0284352,0.0284352,2,16,6
0.209145,0.0278958,0.0278958,2,16,6
0.209125,0.0273634,0.0273634,2,16,6
0.209106,0.0268381,0.0268381,2,16,6
0.209089,0.0263198,0.0263198,2,16,6
0.209074,0.0258084,0.0258084,2,16,6
0.209061,0.0253039,0.0253039,2,16,6
0.209049,0.0248061,0.0248061,2,16,6
0.209038,0.0243152,0.0243152,2,16,6
0.20903,0.0238309,0.0238309,2,16,6
0.209023,0.0233534,0.0233534,2,16,6
0.209017,0.0228824,0.0228824,2,16,6
0.209013,0.0224181,0.0224181,2,16,6
0.20901,0.0219604,0.0219604,2,16,6
0.209009,0.0215092,0.0215092,2,16,6
0.209009,0.0210646,0.0210646,2,16,6
0.20901,0.0206265,0.0206265,2,16,6
0.209013,0.020195,0.020195,2,16,6
0.209017,0.01977,0.01977,2,16,6
0.209023,0.0193515,0.0193515,2,16,6
0.209029,0.0189396,0.0189396,2,16,6
0.209037,0.0185343,0.0185343,2,16,6
0.209045,0.0181356,0.0181356,2,16,6
0.209055,0.0177436,0.0177436,2,16,6
0.209066,0.0173582,0.0173582,2,16,6
0.209078,0.0169796,0.0169796,2,16,6
0.209091,0.0166078,0.0166078,2,16,6
0.209105,0.0162429,0.0162429,2,16,6
0.20912,0.0158849,0.0158849,2,16,6
0.209135,0.0155339,0.0155339,2,16,6
0.209151,0.01519,0.01519,2,16,6
0.209168,0.0148532,0.0148532,2,16,6
0.209186,0.0145237,0.0145237,2,16,6
0.209204,0.0142016,0.0142016,2,16,6
0.209223,0.0138868,0.0138868,2,16,6
0.209242,0.0135796,0.0135796,2,16,6
0.209262,0.01328,0.01328,2,16,6
0.209282,0.0129881,0.0129881,2,16,6
0.209303,0.0127039,0.0127039,2,16,6
0.209323,0.0124276,0.0124276,2,16,6
0.209344,0.0121591,0.0121591,2,16,6
0.209365,0.0118986,0.0118986,2,16,6
0.209386,0.011646,0.011646,2,16,6
0.209407,0.0114013,0.0114013,2,16,6
0.305868,1.22782,1.22782,2,26,6
0.304055,1.20437,1.20437,2,26,6
0.302221,1.18102,1.18102,2,26,6
0.300369,1.15781,1.15781,2,26,6
0.2985,1.13475,1.13475,2,26,6
0.296615,1.11187,1.11187,2,26,6
0.294716,1.08919,1.08919,2,26,6
0.292806,1.06672,1.06672,2,26,6
0.290886,1.0445,1.0445,2,26,6
0.28896,1.02253,1.02253,2,26,6
0.287031,1.00085,1.00085,2,26,6
0.285102,0.979482,0.979482,2,26,6
0.283175,0.958437,0.958437,2,26,6
0.281255,0.937741,0.937741,2,26,6
0.279346,0.917413,0.917413,2,26,6
0.27745,0.897471,0.897471,2,26,6
0.275571,0.877928,0.877928,2,26,6
0.273712,0.858795,0.858795,2,26,6
0.271876,0.840078,0.840078,2,26,6
0.270064,0.821775,0.821775,2,26,6
0.268278,0.803876,0.803876,2,26,6
0.266516,0.786364,0.786364,2,26,6
0.264779,0.76921,0.76921,2,26,6
0.263064,0.752379,0.752379,2,26,6
0.261367,0.735833,0.735833,2,26,6
0.259685,0.719532,0.719532,2,26,6
0.258015,0.703444,0.703444,2,26,6
0.256356,0.687554,0.687554,2,26,6
0.254706,0.671857,0.671857,2,26,6
0.253067,0.656363,0.656363,2,26,6
0.25144,0.641088,0.641088,2,26,6
0.249826,0.626044,0.626044,2,26,6
0.248226,0.611239,0.611239,2,26,6
0.246642,0.596673,0.596673,2,26,6
0.245073,0.582342,0.582342,2,26,6
0.243519,0.568237,0.568237,2,26,6
0.24198,0.554351,0.554351,2,26,6
0.240458,0.540672,0.540672,2,26,6
0.23895,0.527195,0.527195,2,26,6
0.237459,0.513912,0.513912,2,26,6
0.235985,0.500818,0.500818,2,26,6
0.234529,0.487912,0.487912,2,26,6
0.233092,0.475193,0.475193,2,26,6
0.231675,0.462662,0.462662,2,26,6
0.23028,0.450322,0.450322,2,26,6
0.228908,0.438175,0.438175,2,26,6
0.227561,0.426228,0.426228,2,26,6
0.226241,0.414487,0.414487,2,26,6
0.22541,0.407085,0.407085,2,26,6
0.225,0.403418,0.403418,2,26,6
0.224795,0.401592,0.401592,2,26,6
0.224694,0.400682,0.400682,2,26,6
0.224643,0.400227,0.400227,2,26,6
0.224617,0.4,0.4,2,25,6
0.224592,0.399773,0.399773,2,25,6
0.224541,0.399319,0.399319,2,25,6
0.22444,0.398412,0.398412,2,25,6
0.224238,0.396602,0.396602,2,25,6
0.223836,0.393,0.393,2,25,6
0.223042,0.385867,0.385867,2,25,6
0.221828,0.374912,0.374912,2,25,6
0.220648,0.364201,0.364201,2,25,6
0.219503,0.353746,0.353746,2,25,6
0.218395,0.343561,0.343561,2,25,6
0.217326,0.333662,0.333662,2,25,6
0.216296,0.324065,0.324065,2,25,6
0.215307,0.314795,0.314795,2,25,6
0.214361,0.305879,0.305879,2,25,6
0.213461,0.297355,0.297355,2,25,6
0.212608,0.289279,0.289279,2,25,6
0.211808,0.281725,0.281725,2,25,6
0.211065,0.27481,0.27481,2,25,6
0.210389,0.268709,0.268709,2,25,6
0.209797,0.263697,0.263697,2,25,6
0.209313,0.260179,0.260179,2,25,6
0.208972,0.25867,0.25867,2,25,6
0.208807,0.259564,0.259564,2,25,6
0.20882,0.262806,0.262806,2,25,6
0.208986,0.267945,0.267945,2,25,6
0.20927,0.274511,0.274511,2,25,6
0.20965,0.282175,0.282175,2,25,6
0.210109,0.290734,0.290734,2,25,6
0.210636,0.300064,0.300064,2,25,6
0.211227,0.310088,0.310088,2,25,6
0.211876,0.32076,0.32076,2,25,6
0.212581,0.332053,0.332053,2,25,6
0.21334,0.343953,0.343953,2,25,6
0.214152,0.356454,0.356454,2,25,6
0.215017,0.369559,0.369559,2,25,6
0.215935,0.383271,0.383271,2,25,6
0.216904,0.397601,0.397601,2,25,6
0.217925,0.412559,0.412559,2,25,6
0.218997,0.428159,0.428159,2,25,6
0.22012,0.444415,0.444415,2,25,6
0.221295,0.461341,0.461341,2,25,6
0.222519,0.478955,0.478955,2,25,6
0.223793,0.497273,0.497273,2,25,6
0.225116,0.51631,0.51631,2,25,6
0.226486,0.536084,0.536084,2,25,6
0.227903,0.556609,0.556609,2,25,6
0.229364,0.577902,0.577902,2,25,6
0.230868,0.599976,0.599976,2,25,6
0.232413,0.622847,0.622847,2,25,6
0.233995,0.646526,0.646526,2,25,6
0.235614,0.671026,0.671026,2,25,6
0.237265,0.696357,0.696357,2,25,6
0.238945,0.722528,0.722528,2,25,6
0.240651,0.749547,0.749547,2,25,6
0.24238,0.777421,0.777421,2,25,6
0.244127,0.806155,0.806155,2,25,6
0.245889,0.835751,0.835751,2,25,6
0.247662,0.866214,0.866214,2,25,6
0.249442,0.897542,0.897542,2,25,6
0.251224,0.929737,0.929737,2,25,6
0.253005,0.962795,0.962795,2,25,6
0.254781,0.996715,0.996715,2,25,6
0.256548,1.03149,1.03149,2,25,6
0.258303,1.06712,1.06712,2,25,6
0.260041,1.1036,1.1036,2,25,6
0.26176,1.14092,1.14092,2,25,6
0.263457,1.17907,1.17907,2,25,6
0.265129,1.21805,1.21805,2,25,6
0.266773,1.25784,1.25784,2,25,6
0.268387,1.29845,1.29845,2,25,6
0.26997,1.33985,1.33985,2,25,6
0.271519,1.38205,1.38205,2,25,6
0.273032,1.42503,1.42503,2,25,6
0.274509,1.46879,1.46879,2,25,6
0.275949,1.51332,1.51332,2,25,6
0.277351,1.5586,1.5586,2,25,6
0.278714,1.60463,1.60463,2,25,6
0.280038,1.6514,1.6514,2,25,6
0.281323,1.69891,1.69891,2,25,6
0.282568,1.74713,1.74713,2,25,6
0.283773,1.79608,1.79608,2,25,6
0.28494,1.84573,1.84573,2,25,6
0.286068,1.89608,1.89608,2,25,6
0.287157,1.94713,1.94713,2,25,6
0.288208,1.99885,1.99885,2,25,6
0.289223,2.05126,2.05126,2,25,6
0.2902,2.10433,2.10433,2,25,6
0.291142,2.15807,2.15807,2,25,6
0.292049,2.21246,2.21246,2,25,6
0.292921,2.26749,2.26749,2,25,6
0.29376,2.32317,2.32317,2,25,6
0.309803,1.28215,1.28215,2,28,6
0.308472,1.26428,1.26428,2,28,6
0.307122,1.24637,1.24637,2,28,6
0.305753,1.22842,1.22842,2,28,6
0.304364,1.21045,1.21045,2,28,6
0.302956,1.19245,1.19245,2,28,6
0.30153,1.17445,1.17445,2,28,6
0.300085,1.15645,1.15645,2,28,6
0.298623,1.13846,1.13846,2,28,6
0.297142,1.12048,1.12048,2,28,6
0.295644,1.10254,1.10254,2,28,6
0.29413,1.08463,1.08463,2,28,6
0.2926,1.06677,1.06677,2,28,6
0.291055,1.04898,1.04898,2,28,6
0.289497,1.03125,1.03125,2,28,6
0.287926,1.01362,1.01362,2,28,6
0.286343,0.996075,0.996075,2,28,6
0.284752,0.978647,0.978647,2,28,6
0.283152,0.961346,0.961346,2,28,6
0.281547,0.944188,0.944188,2,28,6
0.279938,0.92719,0.92719,2,28,6
0.278328,0.910372,0.910372,2,28,6
0.27672,0.893754,0.893754,2,28,6
0.275117,0.877359,0.877359,2,28,6
0.273522,0.86121,0.86121,2,28,6
0.271939,0.845335,0.845335,2,28,6
0.270373,0.82976,0.82976,2,28,6
0.268826,0.814518,0.814518,2,28,6
0.267305,0.799639,0.799639,2,28,6
0.265813,0.785158,0.785158,2,28,6
0.264356,0.771108,0.771108,2,28,6
0.262938,0.757523,0.757523,2,28,6
0.261565,0.744436,0.744436,2,28,6
0.260241,0.731877,0.731877,2,28,6
0.258969,0.719872,0.719872,2,28,6
0.257753,0.708439,0.708439,2,28,6
0.256596,0.697589,0.697589,2,28,6
0.255498,0.687322,0.687322,2,28,6
0.254458,0.677627,0.677627,2,28,6
0.253475,0.668476,0.668476,2,28,6
0.252545,0.659827,0.659827,2,28,6
0.251661,0.651619,0.651619,2,28,6
0.250815,0.643773,0.643773,2,28,6
0.249997,0.636183,0.636183,2,28,6
0.249192,0.628723,0.628723,2,28,6
0.248384,0.621235,0.621235,2,28,6
0.247552,0.613537,0.613537,2,28,6
0.246675,0.605427,0.605427,2,28,6
0.245732,0.596724,0.596724,2,28,6
0.244711,0.587331,0.587331,2,28,6
0.24362,0.577317,0.577317,2,28,6
0.242482,0.566908,0.566908,2,28,6
0.241326,0.556376,0.556376,2,28,6
0.240176,0.545932,0.545932,2,28,6
0.239045,0.535696,0.535696,2,28,6
0.23794,0.525725,0.525725,2,28,6
0.236863,0.51603,0.51603,2,28,6
0.235814,0.506608,0.506608,2,28,6
0.234793,0.497442,0.497442,2,28,6
0.233796,0.488514,0.488514,2,28,6
0.232823,0.479806,0.479806,2,28,6
0.231872,0.471301,0.471301,2,28,6
0.230941,0.462982,0.462982,2,28,6
0.23003,0.454836,0.454836,2,28,6
0.229136,0.446851,0.446851,2,28,6
0.22826,0.439016,0.439016,2,28,6
0.227401,0.431324,0.431324,2,28,6
0.226558,0.423766,0.423766,2,28,6
0.22573,0.416336,0.416336,2,28,6
0.224917,0.409032,0.409032,2,28,6
0.224404,0.40442,0.40442,2,28,6
0.22415,0.402133,0.402133,2,28,6
0.224024,0.400994,0.400994,2,28,6
0.22396,0.400426,0.400426,2,28,6
0.223929,0.400142,0.400142,2,28,6
0.223913,0.4,0.4,2,27,6
0.223897,0.399858,0.399858,2,27,6
0.223866,0.399575,0.399575,2,27,6
0.223803,0.399008,0.399008,2,27,6
0.223678,0.397877,0.397877,2,27,6
0.223428,0.395624,0.395624,2,27,6
0.222933,0.391154,0.391154,2,27,6
0.222171,0.384261,0.384261,2,27,6
0.221423,0.377483,0.377483,2,27,6
0.220689,0.37082,0.37082,2,27,6
0.219971,0.364274,0.364274,2,27,6
0.219266,0.357848,0.357848,2,27,6
0.218577,0.351546,0.351546,2,27,6
0.217904,0.345374,0.345374,2,27,6
0.217246,0.339339,0.339339,2,27,6
0.216604,0.333449,0.333449,2,27,6
0.21598,0.327716,0.327716,2,27,6
0.215374,0.322154,0.322154,2,27,6
0.214787,0.316781,0.316781,2,27,6
0.21422,0.31162,0.31162,2,27,6
0.213675,0.3067,0.3067,2,27,6
0.213155,0.30206,0.30206,2,27,6
0.212661,0.29775,0.29775,2,27,6
0.212199,0.293836,0.293836,2,27,6
0.211774,0.29041,0.29041,2,27,6
0.211392,0.287592,0.287592,2,27,6
0.211065,0.285551,0.285551,2,27,6
0.210806,0.284504,0.284504,2,27,6
0.210635,0.284718,0.284718,2,27,6
0.210571,0.286466,0.286466,2,27,6
0.210632,0.289932,0.289932,2,27,6
0.210822,0.295122,0.295122,2,27,6
0.211134,0.301862,0.301862,2,27,6
0.211553,0.30991,0.30991,2,27,6
0.212064,0.319051,0.319051,2,27,6
0.212657,0.329125,0.329125,2,27,6
0.213321,0.340024,0.340024,2,27,6
0.214053,0.351677,0.351677,2,27,6
0.214846,0.364041,0.364041,2,27,6
0.2157,0.37709,0.37709,2,27,6
0.216611,0.390811,0.390811,2,27,6
0.217578,0.4052,0.4052,2,27,6
0.2186,0.420257,0.420257,2,27,6
0.219677,0.435989,0.435989,2,27,6
0.220806,0.452406,0.452406,2,27,6
0.221988,0.469517,0.469517,2,27,6
0.223222,0.487337,0.487337,2,27,6
0.224506,0.505879,0.505879,2,27,6
0.225839,0.525156,0.525156,2,27,6
0.22722,0.545185,0.545185,2,27,6
0.228648,0.565978,0.565978,2,27,6
0.23012,0.587551,0.587551,2,27,6
0.231635,0.609916,0.609916,2,27,6
0.23319,0.633086,0.633086,2,27,6
0.234782,0.657073,0.657073,2,27,6
0.236409,0.681888,0.681888,2,27,6
0.238068,0.707541,0.707541,2,27,6
0.239755,0.73404,0.73404,2,27,6
0.241467,0.761391,0.761391,2,27,6
0.243199,0.789601,0.789601,2,27,6
0.24495,0.818673,0.818673,2,27,6
0.246713,0.848611,0.848611,2,27,6
0.248486,0.879416,0.879416,2,27,6
0.250264,0.911088,0.911088,2,27,6
0.252043,0.943626,0.943626,2,27,6
0.253819,0.977028,0.977028,2,27,6
0.255589,1.01129,1.01129,2,27,6
0.257349,1.04641,1.04641,2,27,6
0.259094,1.08238,1.08238,2,27,6
0.260822,1.11919,1.11919,2,27,6
0.26253,1.15684,1.15684,2,27,6
0.264215,1.19533,1.19533,2,27,6
0.265873,1.23463,1.23463,2,27,6
0.267503,1.27475,1.27475,2,27,6
0.269102,1.31568,1.31568,2,27,6
0.270669,1.35741,1.35741,2,27,6
0.272202,1.39992,1.39992,2,27,6
0.273699,1.44321,1.44321,2,27,6
0.275159,1.48728,1.48728,2,27,6
0.276581,1.53211,1.53211,2,27,6
0.277966,1.57769,1.57769,2,27,6
0.279311,1.62402,1.62402,2,27,6
0.280617,1.67109,1.67109,2,27,6
0.281884,1.71889,1.71889,2,27,6
0.283111,1.7674,1.7674,2,27,6
0.2843,1.81663,1.81663,2,27,6
0.285449,1.86657,1.86657,2,27,6
0.28656,1.9172,1.9172,2,27,6
0.287632,1.96852,1.96852,2,27,6
0.288667,2.02052,2.02052,2,27,6
0.289665,2.07319,2.07319,2,27,6
0.290627,2.12653,2.12653,2,27,6
0.291553,2.18053,2.18053,2,27,6
0.292444,2.23518,2.23518,2,27,6
0.293302,2.29047,2.29047,2,27,6
0.294126,2.3464,2.3464,2,27,6
0.294918,2.40296,2.40296,2,27,6
0.300161,1.15631,1.15631,2,30,6
0.299985,1.15415,1.15415,2,30,6
0.299261,1.14526,1.14526,2,30,6
0.298105,1.13117,1.13117,2,30,6
0.296857,1.11611,1.11611,2,30,6
0.295556,1.10061,1.10061,2,30,6
0.294222,1.08488,1.08488,2,30,6
0.292862,1.06903,1.06903,2,30,6
0.291482,1.05314,1.05314,2,30,6
0.290087,1.03725,1.03725,2,30,6
0.288679,1.0214,1.0214,2,30,6
0.287262,1.00563,1.00563,2,30,6
0.285838,0.989957,0.989957,2,30,6
0.284409,0.9744,0.9744,2,30,6
0.282977,0.958981,0.958981,2,30,6
0.281545,0.943718,0.943718,2,30,6
0.280114,0.928627,0.928627,2,30,6
0.278687,0.913725,0.913725,2,30,6
0.277266,0.899026,0.899026,2,30,6
0.275854,0.884545,0.884545,2,30,6
0.274451,0.870297,0.870297,2,30,6
0.273061,0.856298,0.856298,2,30,6
0.271686,0.842561,0.842561,2,30,6
0.270329,0.829101,0.829101,2,30,6
0.268991,0.815933,0.815933,2,30,6
0.267676,0.803073,0.803073,2,30,6
0.266386,0.790537,0.790537,2,30,6
0.265123,0.77834,0.77834,2,30,6
0.26389,0.7665,0.7665,2,30,6
0.26269,0.755034,0.755034,2,30,6
0.261526,0.743961,0.743961,2,30,6
0.2604,0.733298,0.733298,2,30,6
0.259315,0.723067,0.723067,2,30,6
0.258275,0.713285,0.713285,2,30,6
0.257282,0.703973,0.703973,2,30,6
0.256338,0.695146,0.695146,2,30,6
0.255445,0.686822,0.686822,2,30,6
0.254606,0.679009,0.679009,2,30,6
0.253821,0.671715,0.671715,2,30,6
0.253091,0.664938,0.664938,2,30,6
0.252415,0.658672,0.658672,2,30,6
0.251792,0.652901,0.652901,2,30,6
0.251219,0.647605,0.647605,2,30,6
0.250695,0.642756,0.642756,2,30,6
0.250215,0.638324,0.638324,2,30,6
0.249777,0.634275,0.634275,2,30,6
0.249376,0.630577,0.630577,2,30,6
0.24901,0.627195,0.627195,2,30,6
0.248675,0.624097,0.624097,2,30,6
0.248367,0.621254,0.621254,2,30,6
0.248083,0.618635,0.618635,2,30,6
0.247821,0.616217,0.616217,2,30,6
0.247578,0.613973,0.613973,2,30,6
0.247351,0.611882,0.611882,2,30,6
0.247139,0.609924,0.609924,2,30,6
0.246939,0.608079,0.608079,2,30,6
0.24675,0.606328,0.606328,2,30,6
0.246568,0.604654,0.604654,2,30,6
0.246393,0.603038,0.603038,2,30,6
0.246223,0.601461,0.601461,2,30,6
0.246054,0.599901,0.599901,2,30,6
0.245884,0.598335,0.598335,2,30,6
0.245711,0.596731,0.596731,2,30,6
0.245528,0.595049,0.595049,2,30,6
0.245332,0.593232,0.593232,2,30,6
0.245111,0.591193,0.591193,2,30,6
0.24485,0.588791,0.588791,2,30,6
0.244522,0.58577,0.58577,2,30,6
0.24407,0.581614,0.581614,2,30,6
0.243405,0.575516,0.575516,2,30,6
0.242541,0.567617,0.567617,2,30,6
0.241593,0.558984,0.558984,2,30,6
0.240616,0.550124,0.550124,2,30,6
0.239625,0.541156,0.541156,2,30,6
0.238621,0.53211,0.53211,2,30,6
0.237609,0.523003,0.523003,2,30,6
0.236589,0.513859,0.513859,2,30,6
0.235567,0.504704,0.504704,2,30,6
0.234544,0.495566,0.495566,2,30,6
0.233525,0.486474,0.486474,2,30,6
0.232514,0.477454,0.477454,2,30,6
0.231512,0.468527,0.468527,2,30,6
0.230522,0.459712,0.459712,2,30,6
0.229547,0.451024,0.451024,2,30,6
0.228587,0.442474,0.442474,2,30,6
0.227645,0.43407,0.43407,2,30,6
0.22672,0.425817,0.425817,2,30,6
0.225814,0.417718,0.417718,2,30,6
0.224927,0.409777,0.409777,2,30,6
0.22437,0.404779,0.404779,2,30,6
0.224094,0.402305,0.402305,2,30,6
0.223957,0.401074,0.401074,2,30,6
0.223888,0.40046,0.40046,2,30,6
0.223854,0.400153,0.400153,2,30,6
0.223837,0.4,0.4,2,30,6
0.22382,0.399847,0.399847,2,29,6
0.223786,0.399541,0.399541,2,29,6
0.223718,0.398929,0.398929,2,29,6
0.223582,0.397709,0.397709,2,29,6
0.223312,0.395281,0.395281,2,29,6
0.222778,0.390473,0.390473,2,29,6
0.221959,0.38309,0.38309,2,29,6
0.221159,0.375865,0.375865,2,29,6
0.220379,0.368801,0.368801,2,29,6
0.219618,0.361902,0.361902,2,29,6
0.218878,0.35517,0.35517,2,29,6
0.218157,0.348611,0.348611,2,29,6
0.217457,0.342232,0.342232,2,29,6
0.216778,0.336042,0.336042,2,29,6
0.216121,0.330054,0.330054,2,29,6
0.215487,0.324284,0.324284,2,29,6
0.214876,0.318754,0.318754,2,29,6
0.21429,0.31349,0.31349,2,29,6
0.213731,0.30853,0.30853,2,29,6
0.213203,0.303921,0.303921,2,29,6
0.212708,0.299728,0.299728,2,29,6
0.212252,0.296039,0.296039,2,29,6
0.211843,0.292973,0.292973,2,29,6
0.211489,0.290689,0.290689,2,29,6
0.211206,0.289398,0.289398,2,29,6
0.211011,0.28936,0.28936,2,29,6
0.210924,0.290845,0.290845,2,29,6
0.210962,0.294053,0.294053,2,29,6
0.211133,0.299014,0.299014,2,29,6
0.21143,0.30558,0.30558,2,29,6
0.211838,0.313514,0.313514,2,29,6
0.212343,0.322593,0.322593,2,29,6
0.212933,0.332648,0.332648,2,29,6
0.213598,0.343561,0.343561,2,29,6
0.214332,0.355253,0.355253,2,29,6
0.215129,0.367677,0.367677,2,29,6
0.215988,0.380802,0.380802,2,29,6
0.216905,0.394613,0.394613,2,29,6
0.217879,0.409103,0.409103,2,29,6
0.218909,0.424272,0.424272,2,29,6
0.219993,0.440126,0.440126,2,29,6
0.221131,0.456671,0.456671,2,29,6
0.222322,0.473919,0.473919,2,29,6
0.223564,0.491882,0.491882,2,29,6
0.224857,0.510574,0.510574,2,29,6
0.226199,0.530007,0.530007,2,29,6
0.227589,0.550197,0.550197,2,29,6
0.229026,0.571157,0.571157,2,29,6
0.230506,0.5929,0.5929,2,29,6
0.232029,0.615441,0.615441,2,29,6
0.233591,0.638791,0.638791,2,29,6
0.23519,0.662961,0.662961,2,29,6
0.236824,0.687963,0.687963,2,29,6
0.238488,0.713805,0.713805,2,29,6
0.24018,0.740495,0.740495,2,29,6
0.241896,0.76804,0.76804,2,29,6
0.243632,0.796445,0.796445,2,29,6
0.245385,0.825713,0.825713,2,29,6
0.24715,0.855849,0.855849,2,29,6
0.248923,0.886851,0.886851,2,29,6
0.250701,0.918721,0.918721,2,29,6
0.252479,0.951457,0.951457,2,29,6
0.254253,0.985057,0.985057,2,29,6
0.25602,1.01952,1.01952,2,29,6
0.257776,1.05483,1.05483,2,29,6
0.259517,1.09099,1.09099,2,29,6
0.26124,1.128,1.128,2,29,6
0.262942,1.16584,1.16584,2,29,6
0.26462,1.20452,1.20452,2,29,6
0.266272,1.24401,1.24401,2,29,6
0.267894,1.28432,1.28432,2,29,6
0.269485,1.32543,1.32543,2,29,6
0.271044,1.36733,1.36733,2,29,6
0.272568,1.41003,1.41003,2,29,6
0.274056,1.4535,1.4535,2,29,6
0.275507,1.49774,1.49774,2,29,6
0.27692,1.54275,1.54275,2,29,6
0.278295,1.5885,1.5885,2,29,6
0.27963,1.635,1.635,2,29,6
0.280927,1.68224,1.68224,2,29,6
0.281525,0.943961,0.943961,2,32,6
0.280803,0.936308,0.936308,2,32,6
0.280084,0.928727,0.928727,2,32,6
0.279367,0.921207,0.921207,2,32,6
0.278653,0.913749,0.913749,2,32,6
0.277942,0.906368,0.906368,2,32,6
0.277235,0.89906,0.89906,2,32,6
0.276531,0.891813,0.891813,2,32,6
0.275831,0.88464,0.88464,2,32,6
0.275135,0.877546,0.877546,2,32,6
0.274444,0.870527,0.870527,2,32,6
0.273756,0.863575,0.863575,2,32,6
0.273072,0.856681,0.856681,2,32,6
0.272396,0.849899,0.849899,2,32,6
0.271726,0.843207,0.843207,2,32,6
0.271063,0.836615,0.836615,2,32,6
0.270404,0.83008,0.83008,2,32,6
0.269751,0.823629,0.823629,2,32,6
0.269104,0.817251,0.817251,2,32,6
0.268464,0.810973,0.810973,2,32,6
